ply
format ascii 1.0
comment created by gply, a Houdini tool.
comment converted from .[b]geo
comment for more information about Houdini, try:
comment www.sidefx.com
element vertex 1299
property float x
property float y
property float z
element face 0
property list uchar int vertex_indices
end_header
0.770320952 0.168737456 0.386008531 
0.757073164 0.158936426 0.39818874 
0.76316309 0.160165846 0.410012901 
0.758078814 0.173891485 0.402379155 
0.758603036 0.174026594 0.407299757 
0.767215788 0.160543576 0.401180774 
0.771893442 0.161659852 0.406245857 
0.774035096 0.17108646 0.399085313 
0.767893136 0.167895213 0.414726794 
0.756518185 0.162534311 0.418334663 
0.761877418 0.160950601 0.425823927 
0.763103485 0.165232182 0.419629514 
0.75725013 0.169537202 0.427963585 
0.771821201 0.162536964 0.415316194 
0.771387756 0.164442554 0.42998755 
0.767303586 0.169928953 0.41817537 
0.765402734 0.170661658 0.425031394 
0.755261064 0.160752401 0.435402483 
0.761894763 0.156496704 0.450221747 
0.755453527 0.166606769 0.443835735 
0.763397992 0.172636926 0.450192332 
0.769410908 0.164330482 0.443038613 
0.768097639 0.157159567 0.45260188 
0.768253505 0.172476634 0.439506859 
0.765352011 0.16646485 0.446679503 
0.762680411 0.162021384 0.463268757 
0.763765812 0.162628576 0.47031334 
0.761108994 0.169302389 0.464705914 
0.764815688 0.173706293 0.472153217 
0.77085495 0.155590504 0.457064718 
0.765436292 0.161629096 0.470136195 
0.765042901 0.165189803 0.458886921 
0.766886353 0.173916623 0.468616039 
0.757206917 0.184011236 0.351906687 
0.757881284 0.192204118 0.353760183 
0.770360589 0.175819948 0.350957155 
0.757009864 0.178487465 0.356903702 
0.762115121 0.17613785 0.371771365 
0.760341883 0.194789931 0.363901556 
0.764759362 0.18503885 0.372881681 
0.772886515 0.180362746 0.357503116 
0.769644678 0.175715089 0.368910849 
0.772190332 0.189664379 0.355750829 
0.768678188 0.187474445 0.373295635 
0.756521523 0.184753343 0.382656336 
0.758837342 0.17960833 0.387197703 
0.759238303 0.188215077 0.381646812 
0.763870537 0.19283013 0.386607736 
0.771148443 0.183185115 0.375871122 
0.770593226 0.181520298 0.389846742 
0.77369231 0.188590184 0.377424181 
0.77050513 0.194712818 0.391498357 
0.756447494 0.18176268 0.39709878 
0.7647475 0.177678123 0.409446239 
0.764184415 0.188172057 0.399320602 
0.759393036 0.186571509 0.409018368 
0.766723692 0.180804387 0.403317094 
0.768865287 0.178797334 0.40763858 
0.766393006 0.188239366 0.395005882 
0.774652898 0.190025643 0.406156033 
0.761963844 0.182081193 0.41592133 
0.758518219 0.183328018 0.434095979 
0.75530684 0.194518417 0.420893192 
0.763561487 0.194815695 0.42576921 
0.770967185 0.184856176 0.415572196 
0.773913443 0.180540681 0.431392789 
0.766905725 0.188121244 0.415910393 
0.770921528 0.191737249 0.42876333 
0.755419135 0.184037894 0.438164443 
0.755171835 0.178103328 0.454104215 
0.764195919 0.194692731 0.438480973 
0.755457342 0.186265722 0.454324156 
0.767461896 0.184901893 0.43821916 
0.77025938 0.18158783 0.448653132 
0.773805499 0.187018901 0.43900618 
0.773311317 0.186636925 0.45384267 
0.759560108 0.177744344 0.4615888 
0.764106452 0.183127046 0.474140316 
0.762456775 0.191673517 0.463899106 
0.759827912 0.191898152 0.467457205 
0.767549455 0.179103225 0.457027048 
0.774237692 0.177190974 0.47418505 
0.769913256 0.186793864 0.464686662 
0.772186399 0.193720147 0.46530515 
0.761964381 0.201741368 0.350442231 
0.758089423 0.211266935 0.353277981 
0.772919178 0.204798505 0.352618515 
0.767355919 0.205029726 0.351322591 
0.759366453 0.195008025 0.361605734 
0.764914572 0.202976808 0.366790503 
0.757796288 0.210368693 0.359159887 
0.760480344 0.211378932 0.367438287 
0.771039665 0.202502385 0.359626204 
0.770415783 0.195463851 0.368308425 
0.770566761 0.205437675 0.35774228 
0.765205145 0.212138429 0.370569885 
0.755954266 0.200858369 0.376944304 
0.761915326 0.198623642 0.387665868 
0.762059212 0.213948637 0.378050268 
0.755909741 0.212401167 0.39333114 
0.773256242 0.202884987 0.376530617 
0.77306217 0.195812032 0.391367614 
0.770192742 0.20693557 0.378643125 
0.765680552 0.20656012 0.389254868 
0.755078018 0.204036549 0.395783782 
0.762435973 0.202142268 0.409914196 
0.757567346 0.209161088 0.397385001 
0.757871091 0.214567482 0.405365914 
0.770362258 0.197449654 0.402417928 
0.768490553 0.197828561 0.41015318 
0.774468303 0.20963499 0.397502631 
0.771044075 0.206279829 0.406156749 
0.75782907 0.201089695 0.424232513 
0.761829257 0.202301636 0.430650055 
0.763026893 0.211859897 0.42426765 
0.75997293 0.210136548 0.430584848 
0.767449141 0.197198257 0.421955019 
0.772040784 0.198671073 0.429879606 
0.768494964 0.207637474 0.417877138 
0.77341336 0.209778279 0.430457413 
0.759590983 0.20053257 0.440430433 
0.755935609 0.20452261 0.44536072 
0.762300909 0.210403651 0.443784326 
0.75701195 0.21476844 0.445478886 
0.765952289 0.202453643 0.442811579 
0.772099197 0.200280204 0.452788711 
0.770966828 0.207827359 0.444136471 
0.769145012 0.209367976 0.451139063 
0.757757664 0.197851405 0.464610368 
0.757828057 0.203185186 0.468895763 
0.764397025 0.208398789 0.457096756 
0.756038904 0.209161565 0.471013755 
0.76831162 0.195326462 0.455340743 
0.773496866 0.197781578 0.470055819 
0.772102654 0.21220243 0.459988892 
0.768519521 0.205472678 0.471816123 
0.755826473 0.221251547 0.354388326 
0.756761432 0.234569743 0.349523097 
0.770031214 0.222138971 0.353412002 
0.758412123 0.216777295 0.357324094 
0.759388447 0.215232462 0.369979799 
0.757216871 0.226070523 0.362196207 
0.763838768 0.227872029 0.366501361 
0.769236803 0.220335752 0.359854698 
0.765316844 0.224121496 0.368877769 
0.767991006 0.226175725 0.357853413 
0.766653538 0.229946747 0.365365922 
0.762329459 0.223632485 0.382283688 
0.755543888 0.216295108 0.392651021 
0.762100279 0.22580716 0.383804142 
0.757841766 0.233627096 0.387122959 
0.767247915 0.222845122 0.384657353 
0.767554998 0.220155925 0.385025442 
0.770636261 0.228208303 0.380844831 
0.771578133 0.232503608 0.393344015 
0.757917285 0.221315116 0.39550215 
0.757555664 0.223645136 0.407198638 
0.758710444 0.226139903 0.404713035 
0.763967097 0.232541233 0.410902768 
0.774491847 0.219329715 0.402153999 
0.772980511 0.224054068 0.410718471 
0.768328726 0.229342416 0.39842397 
0.768914521 0.225193486 0.412182003 
0.756807923 0.221274376 0.421301723 
0.756168008 0.223447934 0.431578368 
0.764811337 0.233504087 0.424511164 
0.764626205 0.234161168 0.433189422 
0.77460748 0.215115413 0.420537114 
0.768503666 0.219221756 0.43291539 
0.771510601 0.22583881 0.418036461 
0.770387769 0.226825446 0.433752775 
0.762407243 0.215163067 0.441746145 
0.756285608 0.217717037 0.452077806 
0.760046303 0.225433469 0.44121182 
0.760011137 0.231341824 0.45295763 
0.766545117 0.219378322 0.436730593 
0.773140907 0.221260786 0.452547282 
0.769095123 0.227891624 0.439937234 
0.774294257 0.225010991 0.450449854 
0.756882906 0.215648293 0.458287954 
0.761983573 0.218069762 0.473294109 
0.758664012 0.228806019 0.459065527 
0.758477092 0.2339257 0.470647067 
0.765570283 0.219825029 0.459653914 
0.765782177 0.215522185 0.466656923 
0.770872593 0.229502589 0.458619684 
0.774636567 0.229831368 0.471993417 
0.773754299 0.252453983 0.354280889 
0.764395893 0.241752803 0.359497786 
0.76184082 0.240255997 0.368328422 
0.761831284 0.250155777 0.358897507 
0.762964249 0.254664183 0.371204972 
0.767657816 0.240930185 0.363400161 
0.767913103 0.235982329 0.374112397 
0.769875824 0.250765264 0.361768931 
0.76815933 0.247097865 0.369009703 
0.759168267 0.236649498 0.38184312 
0.759389102 0.236501426 0.393798888 
0.763991833 0.249607697 0.379818618 
0.758420348 0.250607014 0.394261092 
0.771532953 0.236745968 0.384718359 
0.766615629 0.240210772 0.391137093 
0.774181128 0.246110335 0.380966187 
0.770203173 0.251425892 0.387692928 
0.756142735 0.239649475 0.398348302 
0.760925531 0.235067949 0.410936892 
0.761425912 0.245630026 0.397547334 
0.762177944 0.249146879 0.406889647 
0.765769184 0.244933397 0.398543805 
0.767463982 0.235230058 0.41358453 
0.773526251 0.24555783 0.404141277 
0.769631922 0.2537283 0.411905706 
0.762637258 0.243409932 0.421038002 
0.756735921 0.240989432 0.425430864 
0.762177587 0.247756243 0.416729301 
0.761792004 0.248432457 0.432915777 
0.772828102 0.237162635 0.420108795 
0.77366966 0.239238366 0.425601512 
0.765137255 0.254082978 0.415101975 
0.773372948 0.247047156 0.428152144 
0.755607665 0.242121071 0.437715977 
0.762652695 0.235717535 0.454676837 
0.759794056 0.246139959 0.44408381 
0.76003623 0.250113577 0.453968227 
0.768515766 0.237404689 0.435812891 
0.767186999 0.236177906 0.451284885 
0.772228837 0.251219928 0.439684033 
0.773104012 0.253633827 0.446412623 
0.75807184 0.235606551 0.461270571 
0.77008605 0.241100147 0.462455392 
0.771265209 0.253632545 0.457449883 
0.758663714 0.259085 0.35137403 
0.762315392 0.267516732 0.353155136 
0.774248481 0.268788755 0.352654219 
0.759293556 0.257308364 0.363112777 
0.758281171 0.259016454 0.3720496 
0.759816587 0.272860408 0.362821281 
0.759785116 0.27404809 0.371517926 
0.765816152 0.264952093 0.361715406 
0.774161875 0.25771901 0.365727454 
0.770151079 0.271037191 0.364830762 
0.769838929 0.265673161 0.365922838 
0.760068417 0.259329617 0.381270945 
0.759626508 0.263008028 0.390654713 
0.763070643 0.272133589 0.380235553 
0.756170571 0.266128451 0.387720436 
0.772448897 0.259234458 0.377122432 
0.773161352 0.264960885 0.389663607 
0.768789291 0.273826689 0.379059821 
0.770071507 0.26508826 0.394855142 
0.761697948 0.257118702 0.40402177 
0.764243484 0.256845653 0.413291425 
0.764215827 0.274117023 0.403587967 
0.762198627 0.270093948 0.41457957 
0.76942724 0.261264145 0.400247157 
0.766655922 0.259270161 0.41175732 
0.774812341 0.271880537 0.397749603 
0.770979881 0.273346364 0.411672443 
0.758086801 0.262537122 0.421129495 
0.756344974 0.264127374 0.429336816 
0.761619568 0.271548271 0.416500866 
0.758660853 0.272950888 0.432684749 
0.772852361 0.256867796 0.420841455 
0.774338424 0.255967438 0.434725583 
0.769964874 0.274025768 0.422123075 
0.76626277 0.273495793 0.434002906 
0.762580216 0.264810711 0.443668783 
0.761694014 0.259347528 0.445140034 
0.761818826 0.271937162 0.436374038 
0.759241223 0.272207558 0.449965566 
0.772139251 0.263290316 0.437402487 
0.765598297 0.263708293 0.445566863 
0.766667485 0.26635927 0.441615939 
0.774760246 0.273712099 0.453241557 
0.768668592 0.260223716 0.456087708 
0.774922431 0.271368653 0.456776977 
0.772518277 0.271987259 0.465411991 
0.755664587 0.277441859 0.353318185 
0.756083727 0.291701615 0.351043016 
0.770359457 0.280922264 0.353810638 
0.758847356 0.277620435 0.360697061 
0.76361388 0.277302951 0.370644242 
0.764914751 0.288554162 0.364895225 
0.764846504 0.293233901 0.374040782 
0.770501971 0.283787966 0.364540458 
0.773854494 0.282120883 0.366185844 
0.769927442 0.290138751 0.359575808 
0.766074479 0.285998851 0.369962692 
0.759873629 0.27804172 0.377269238 
0.760110855 0.276025027 0.391000718 
0.760374963 0.29267925 0.38156417 
0.759807706 0.294029176 0.387209445 
0.772073984 0.279034436 0.384660155 
0.770629108 0.280141532 0.388874054 
0.774695456 0.292691648 0.383908629 
0.772048116 0.287953347 0.391230524 
0.756151855 0.275019765 0.402681202 
0.761185229 0.279771715 0.413405865 
0.762050033 0.294924438 0.396845222 
0.757186174 0.289803535 0.407262743 
0.77039814 0.280432731 0.400169879 
0.772311211 0.282655925 0.409667045 
0.770253301 0.287614346 0.399179786 
0.76778388 0.289457917 0.410380632 
0.756340325 0.279606372 0.421327829 
0.761874616 0.28363663 0.427380472 
0.763774037 0.287891954 0.415768355 
0.762394607 0.293823332 0.433422834 
0.769667149 0.281316519 0.421064764 
0.765373528 0.275770575 0.432794869 
0.773173034 0.286901593 0.420961499 
0.772354901 0.292046547 0.433002204 
0.755904496 0.282896459 0.441460341 
0.758533955 0.277262241 0.451846004 
0.756760716 0.290197462 0.444717199 
0.764818668 0.290644795 0.445491582 
0.767169535 0.280928612 0.444008529 
0.772606075 0.275183856 0.445245892 
0.774309754 0.286453336 0.436268955 
0.772750497 0.294941962 0.453606844 
0.76437062 0.283592522 0.457543075 
0.758800328 0.292514175 0.462135315 
0.772119761 0.277162284 0.458875477 
0.765701413 0.285147458 0.457436442 
0.76989603 0.294272423 0.473292083 
0.758917868 0.301066428 0.353375763 
0.762288928 0.314458787 0.354053915 
0.758904815 0.301342875 0.363082379 
0.75822264 0.301751316 0.37305215 
0.757755935 0.3125678 0.356277466 
0.756486952 0.306764454 0.374847531 
0.770727217 0.295275748 0.362656236 
0.772710502 0.301066577 0.371173352 
0.770483553 0.309060991 0.362255096 
0.773506105 0.306097895 0.369408339 
0.758101881 0.295281023 0.383044034 
0.757061303 0.295622885 0.391543508 
0.759741127 0.308433026 0.381396115 
0.763896585 0.3130638 0.387030631 
0.773757279 0.302967727 0.376507759 
0.769172192 0.300766766 0.393852741 
0.774431169 0.305704951 0.376597762 
0.769901514 0.311828524 0.390385568 
0.764374614 0.304624289 0.403378874 
0.757150471 0.300964147 0.409097552 
0.764566898 0.307042927 0.404077888 
0.758363008 0.313327134 0.407800287 
0.773483634 0.298512161 0.402851105 
0.767323673 0.296521574 0.405872375 
0.77155453 0.310256213 0.403591096 
0.770334542 0.311775088 0.407694936 
0.758566141 0.30227378 0.416391313 
0.762528419 0.30231607 0.430062056 
0.764644861 0.314229518 0.41962871 
0.756690562 0.308063477 0.434215218 
0.774562716 0.302260727 0.41857338 
0.766981423 0.301543891 0.428361565 
0.765237033 0.309491903 0.419810563 
0.76965487 0.312722474 0.433436215 
0.762004375 0.301412195 0.440118343 
0.759965181 0.299935549 0.446975261 
0.763686657 0.309267968 0.43506524 
0.764440417 0.306162834 0.446320742 
0.767855704 0.295599163 0.43666473 
0.771559596 0.304673344 0.450071841 
0.767084062 0.314835221 0.442211896 
0.767438948 0.307498723 0.451173842 
0.762183309 0.30193004 0.46052748 
0.764983773 0.297774702 0.472653955 
0.756623685 0.310762048 0.456307083 
0.763139844 0.307482123 0.471984297 
0.765939236 0.302336812 0.462600112 
0.772151053 0.295956761 0.465365857 
0.773406625 0.312551558 0.46276173 
0.773849189 0.306252241 0.466374129 
0.777505338 0.165611923 0.352462769 
0.788123965 0.165365964 0.350263864 
0.781049609 0.164719 0.355882943 
0.783514202 0.158887208 0.367745429 
0.775412023 0.167876735 0.36261335 
0.778246582 0.167295009 0.369385064 
0.787685096 0.162818745 0.358828515 
0.789363444 0.164336964 0.373411685 
0.788429737 0.17402868 0.373816729 
0.780394435 0.156901702 0.383671522 
0.784243405 0.157946855 0.385061979 
0.784844816 0.167478353 0.377806187 
0.784963191 0.172876924 0.390970439 
0.787154496 0.157398149 0.382257879 
0.786720395 0.15597184 0.390723288 
0.786417484 0.16693981 0.376764596 
0.78305757 0.158362865 0.403151959 
0.777641892 0.15721412 0.414788038 
0.779230475 0.173319802 0.402565181 
0.775749981 0.172337577 0.410547644 
0.785592198 0.172269702 0.396382064 
0.775910318 0.16255112 0.420566678 
0.780137897 0.15614745 0.431163639 
0.7819013 0.167595506 0.423927426 
0.775594711 0.165422171 0.430425763 
0.788613915 0.157862455 0.418936014 
0.787673593 0.158990249 0.425923944 
0.786585629 0.170536295 0.419363618 
0.784960032 0.160439745 0.437510937 
0.781332195 0.160068735 0.447538316 
0.778155267 0.174160466 0.436754227 
0.78091526 0.172265097 0.449168891 
0.789080083 0.169763356 0.435511142 
0.780321658 0.163738996 0.464683354 
0.77729243 0.161302328 0.46827051 
0.776430011 0.166277438 0.455871582 
0.77566582 0.17449896 0.465648204 
0.789298177 0.158096805 0.456266046 
0.789174497 0.155807033 0.469503134 
0.775719404 0.179506332 0.353348404 
0.787391901 0.194140732 0.353064567 
0.776661456 0.184055433 0.364611417 
0.779575586 0.183469862 0.368148923 
0.782047868 0.189508706 0.356089771 
0.781253099 0.18759118 0.374922931 
0.787670016 0.176184967 0.356091052 
0.786316693 0.191248819 0.362397879 
0.779764593 0.180662617 0.376336038 
0.784004569 0.183893383 0.393161476 
0.779530585 0.194880545 0.382113218 
0.783097923 0.189974979 0.388873726 
0.786694884 0.180643231 0.376178592 
0.786742091 0.177672938 0.385972977 
0.78575772 0.189846382 0.377901465 
0.775211513 0.177895859 0.400121599 
0.781513751 0.181693926 0.414417267 
0.778104603 0.185287192 0.397743255 
0.781785429 0.194641471 0.41295436 
0.788380861 0.179259136 0.413384497 
0.787394583 0.192477256 0.405294955 
0.776998818 0.179642692 0.417860955 
0.784367681 0.175474152 0.434450537 
0.779659927 0.189910471 0.424156338 
0.779058874 0.188194379 0.432683975 
0.786327362 0.184498429 0.418522894 
0.788883269 0.188873023 0.422809541 
0.785667598 0.18502745 0.425338417 
0.779965103 0.17698957 0.441955686 
0.780076802 0.1809569 0.454666853 
0.779075325 0.187130138 0.439108819 
0.781517923 0.187184036 0.451774269 
0.786015689 0.185612619 0.445165396 
0.782014489 0.177851155 0.463945448 
0.777722418 0.176373303 0.474628359 
0.781447411 0.191203177 0.458806992 
0.784640908 0.190348208 0.471569896 
0.786301374 0.183556855 0.466247499 
0.787922919 0.19492051 0.458602101 
0.788095713 0.188046917 0.46661666 
0.783658028 0.20698303 0.352369189 
0.788757622 0.201106682 0.352120548 
0.782038748 0.203587785 0.355871588 
0.783087611 0.201927215 0.365748405 
0.779429078 0.210219473 0.360265166 
0.782265127 0.21258682 0.369406104 
0.789297938 0.198865563 0.361289173 
0.789010286 0.211082935 0.367556423 
0.776460767 0.19977358 0.376565695 
0.778639078 0.195532963 0.388176054 
0.781147242 0.212885231 0.381400049 
0.782439768 0.213470876 0.392871469 
0.787809193 0.201036125 0.375256628 
0.787862241 0.201689035 0.392963886 
0.786321163 0.214082375 0.383125067 
0.777179122 0.200006276 0.399652481 
0.776960492 0.197632998 0.410839081 
0.775850117 0.208901167 0.401465744 
0.775521457 0.209513798 0.410742909 
0.788580298 0.199272573 0.39815256 
0.786372542 0.204067305 0.409987897 
0.788685262 0.206013173 0.413168073 
0.77569747 0.201423481 0.415344864 
0.780284226 0.197553053 0.425798357 
0.782719851 0.205589473 0.422499508 
0.778104246 0.210006654 0.426759958 
0.787700593 0.198229626 0.433454156 
0.775867403 0.196903467 0.438168555 
0.777920246 0.195640087 0.450568378 
0.775563061 0.20698531 0.444227517 
0.776397049 0.213003725 0.445697397 
0.788788557 0.19715552 0.44791618 
0.785267532 0.208905205 0.444088548 
0.780434787 0.200576723 0.461780131 
0.782720804 0.198957011 0.468331456 
0.782473505 0.212786496 0.460320383 
0.780821979 0.213024706 0.468743056 
0.776597619 0.219977766 0.349998921 
0.777069151 0.225684389 0.35399884 
0.786513984 0.225689203 0.350443304 
0.778909922 0.221319571 0.362854868 
0.778034151 0.224944502 0.366051406 
0.78483814 0.233354911 0.361097306 
0.783468366 0.231860578 0.365300685 
0.78530407 0.224590912 0.364177555 
0.789415419 0.232644886 0.369073987 
0.781392574 0.215248823 0.377953827 
0.782653332 0.223332599 0.391623825 
0.784159899 0.229707584 0.381512791 
0.783139229 0.229001805 0.387217581 
0.786285758 0.217656195 0.378907174 
0.7893731 0.225398898 0.383458912 
0.780531287 0.223137349 0.398298174 
0.777819932 0.223499164 0.411545515 
0.77898407 0.226862907 0.403513968 
0.782752991 0.228173077 0.405634165 
0.787132502 0.233519807 0.397011727 
0.779787362 0.222645789 0.421243817 
0.783752561 0.221296236 0.43072173 
0.781345129 0.231522739 0.423471153 
0.776839972 0.22595346 0.429099619 
0.78735733 0.216073185 0.417272121 
0.785858989 0.21916607 0.425595582 
0.775170863 0.21624811 0.444773912 
0.778136849 0.22332339 0.445291817 
0.779331207 0.232410878 0.435040176 
0.782853186 0.231651187 0.450378418 
0.787624002 0.22128211 0.449203819 
0.784150839 0.221015841 0.457055181 
0.780843019 0.219016358 0.473465443 
0.779943943 0.226224989 0.463777632 
0.784275293 0.231331781 0.465496123 
0.788539052 0.220009759 0.465857893 
0.786623418 0.22771956 0.468490899 
0.777863443 0.251910269 0.349451363 
0.780456841 0.243432507 0.363239348 
0.775888085 0.235944957 0.369438797 
0.784312725 0.245376125 0.364010602 
0.780103564 0.245562851 0.369895667 
0.785431027 0.239178374 0.363245755 
0.789174497 0.238027275 0.367857277 
0.789001465 0.2472606 0.359351039 
0.788807809 0.249200746 0.370027065 
0.777372479 0.238581106 0.375235826 
0.776164711 0.23924464 0.392853439 
0.777815461 0.247169018 0.379913449 
0.776946127 0.251009703 0.394182891 
0.788031459 0.248513594 0.390240669 
0.777254164 0.244301558 0.398655087 
0.777329862 0.237330928 0.411188245 
0.775240898 0.252490133 0.395236641 
0.782543123 0.245574951 0.408235908 
0.785544336 0.24349907 0.404866934 
0.78516686 0.237121925 0.405357778 
0.78780365 0.250770003 0.397094309 
0.788751721 0.247072369 0.409476578 
0.77815634 0.242064968 0.422090977 
0.783977151 0.241672367 0.430985659 
0.778949618 0.245631233 0.423564076 
0.782744288 0.250636011 0.427386075 
0.789274633 0.250307709 0.418034345 
0.787521005 0.25239563 0.432435751 
0.784270406 0.239170507 0.436995476 
0.779524326 0.237392634 0.446922034 
0.775853872 0.251252323 0.438209981 
0.780399799 0.252298415 0.445581526 
0.785215735 0.236174628 0.446530998 
0.785662055 0.248179272 0.440097421 
0.782860279 0.242331505 0.460621357 
0.781909585 0.242308259 0.473497152 
0.775523484 0.254833072 0.45870176 
0.783665419 0.247541666 0.466270894 
0.787354529 0.241058111 0.46516642 
0.788750768 0.245925069 0.461998731 
0.779341638 0.2580989 0.358657151 
0.779805422 0.258438289 0.36567378 
0.776983857 0.273026735 0.359936446 
0.781655252 0.266419113 0.365859509 
0.789367855 0.260334641 0.358296305 
0.78787446 0.268377483 0.364172786 
0.785856009 0.2667467 0.366949081 
0.776133418 0.256166965 0.375622094 
0.77903682 0.26105544 0.390483797 
0.782949448 0.269342393 0.380644232 
0.778826475 0.27070272 0.394984305 
0.787146151 0.261487693 0.378120989 
0.782705426 0.259674072 0.39769581 
0.775757074 0.26223129 0.410954475 
0.783284903 0.272949666 0.400872529 
0.780792534 0.265563101 0.406592011 
0.787886858 0.258344382 0.407148689 
0.787080407 0.270832241 0.39781183 
0.783402085 0.264079809 0.420759171 
0.779102206 0.264131457 0.433471918 
0.775736094 0.26973623 0.417136967 
0.781074226 0.274223834 0.432290733 
0.785362124 0.256636351 0.425362349 
0.779804468 0.264362842 0.437989324 
0.783863783 0.261870831 0.454056323 
0.776201487 0.269878387 0.437178344 
0.777332366 0.269932777 0.449346662 
0.785930216 0.255157381 0.444644153 
0.787688494 0.256392777 0.453684568 
0.788409352 0.273510516 0.435670823 
0.789096117 0.266582698 0.445110112 
0.777939379 0.259730399 0.460253149 
0.782791436 0.272735447 0.457757562 
0.777635098 0.272758216 0.471331716 
0.785064816 0.266122133 0.459113479 
0.775675178 0.27750954 0.350472748 
0.78425926 0.290779859 0.351041436 
0.775036752 0.27842766 0.360361218 
0.775593817 0.281032085 0.370806903 
0.779925823 0.294872969 0.356055886 
0.778436661 0.290801287 0.36842373 
0.786159694 0.27730152 0.373490691 
0.788666725 0.291032434 0.37211889 
0.7831074 0.27681458 0.381350607 
0.783993483 0.276149839 0.385889292 
0.783992052 0.292886108 0.381585628 
0.780841529 0.29066509 0.393771678 
0.785421848 0.284594655 0.378748953 
0.78561604 0.275417984 0.393580675 
0.787457764 0.285128623 0.390121162 
0.781306267 0.275727034 0.397154599 
0.776881874 0.277193189 0.407065928 
0.778851092 0.293861479 0.398264199 
0.779802144 0.285432696 0.411516011 
0.786268532 0.278552681 0.400433838 
0.787545085 0.294853836 0.402594835 
0.785072088 0.286191016 0.410300523 
0.781093717 0.278839588 0.424316138 
0.78163743 0.281999439 0.426776886 
0.782521307 0.289494187 0.419448614 
0.775341213 0.294316441 0.432325065 
0.788066864 0.281207204 0.419602811 
0.781532407 0.27565214 0.441679478 
0.776605129 0.280868858 0.45064804 
0.784506261 0.286757439 0.443459302 
0.776854575 0.285461932 0.447604775 
0.789219558 0.283295155 0.453768253 
0.783681929 0.275376201 0.460925102 
0.780164182 0.275691032 0.474547029 
0.778392375 0.287134826 0.463079214 
0.77778542 0.290991127 0.469044864 
0.786919177 0.28226009 0.459367335 
0.787703037 0.286215872 0.464124173 
0.779107332 0.304186761 0.351228058 
0.777724206 0.307295084 0.354236662 
0.788475633 0.30264625 0.350746691 
0.776121795 0.299313813 0.359714299 
0.780541778 0.300809622 0.366318434 
0.777098536 0.309649408 0.355244994 
0.778332055 0.309577197 0.36834237 
0.785948038 0.300206333 0.357595623 
0.789193749 0.297852248 0.371614039 
0.786320388 0.308433771 0.355768383 
0.780404687 0.30359441 0.376262456 
0.782664716 0.301347762 0.392472804 
0.775003672 0.306727111 0.379859298 
0.780109644 0.309615016 0.387352586 
0.787617803 0.313007623 0.394176513 
0.777539074 0.300172418 0.401268989 
0.778883517 0.295884013 0.409432292 
0.77823168 0.313939661 0.398414582 
0.7826038 0.310712039 0.410293788 
0.788196087 0.297731608 0.403334558 
0.775117099 0.302009493 0.422096819 
0.781749189 0.296849817 0.43212077 
0.778163314 0.310271233 0.415215999 
0.776128769 0.305378526 0.432468772 
0.785804391 0.303955287 0.416220874 
0.786459565 0.295662463 0.429255277 
0.785570502 0.310647249 0.429115981 
0.780593455 0.296625674 0.440049827 
0.782829344 0.300408512 0.449599504 
0.779969752 0.311431944 0.441981077 
0.778249919 0.305781484 0.448850989 
0.779622972 0.295683622 0.456129968 
0.782078385 0.302811891 0.471190691 
0.784419954 0.311597466 0.461384684 
0.781364799 0.305369735 0.470473439 
0.787082314 0.303362817 0.456718326 
0.785167515 0.31053251 0.459547341 
0.643191576 0.16282624 0.487814009 
0.643306792 0.169834837 0.494308919 
0.647523284 0.158379793 0.48388949 
0.654232681 0.159059078 0.48766157 
0.651047826 0.17426917 0.494176328 
0.637449205 0.156569004 0.498086125 
0.637993813 0.163647026 0.512264073 
0.635991812 0.173329562 0.495786548 
0.63538152 0.166793779 0.505866528 
0.653236091 0.164858699 0.500315666 
0.648314774 0.155228779 0.508511722 
0.653833807 0.172764778 0.502981126 
0.646143556 0.172605917 0.509449184 
0.636273384 0.164997116 0.519675493 
0.643313825 0.155034274 0.529243708 
0.639959276 0.171854049 0.517541111 
0.640847802 0.172278836 0.533736646 
0.649332047 0.159178555 0.518980384 
0.646386921 0.164895147 0.529401422 
0.647035301 0.174366683 0.517333627 
0.647302449 0.174873948 0.525061607 
0.63983494 0.155034676 0.540005088 
0.643133044 0.1648532 0.546964049 
0.638833225 0.170071051 0.543050468 
0.638599098 0.17150031 0.549775362 
0.648608029 0.15740338 0.535180509 
0.645817459 0.163364202 0.554579854 
0.649812937 0.170920387 0.540808082 
0.654580712 0.166462287 0.548518181 
0.642523825 0.164394975 0.563944757 
0.637277424 0.164843693 0.566313207 
0.643080056 0.166184545 0.563660026 
0.640056372 0.172423035 0.570924222 
0.645058811 0.15762952 0.56494832 
0.653884888 0.156839922 0.574991763 
0.647127211 0.173210695 0.5604918 
0.650590956 0.16553615 0.568392992 
0.638003945 0.155252203 0.579464912 
0.640727282 0.156788066 0.58915782 
0.639585435 0.165511355 0.583625436 
0.640639305 0.171432078 0.59414047 
0.653476119 0.155164868 0.579897046 
0.646968007 0.160587028 0.593875051 
0.647958815 0.173069805 0.579727769 
0.645092964 0.174935684 0.594449282 
0.641904473 0.161623657 0.601872146 
0.643560052 0.164086878 0.611754119 
0.638255835 0.169186532 0.59762603 
0.635345936 0.172176734 0.605271757 
0.650789499 0.155521303 0.602266788 
0.646998167 0.160515293 0.614412367 
0.649679363 0.167375714 0.598404706 
0.654809475 0.171699256 0.612270176 
0.644860446 0.163221702 0.619179249 
0.641378582 0.167795911 0.623103917 
0.647202849 0.165278345 0.622408628 
0.64987123 0.181646451 0.491084456 
0.65187037 0.185672507 0.492905557 
0.63611418 0.179917231 0.50075382 
0.644080281 0.183032885 0.514871657 
0.641757011 0.194044009 0.497540146 
0.641138136 0.19474408 0.512827754 
0.649052322 0.182104498 0.496384829 
0.652243912 0.182372838 0.507113338 
0.649777234 0.19375062 0.495111763 
0.651432037 0.192156196 0.512122214 
0.641077816 0.178856075 0.520559728 
0.643480182 0.17810227 0.532152534 
0.63956213 0.190764695 0.523209929 
0.639434934 0.191622451 0.529823959 
0.646797478 0.176862702 0.520235538 
0.646252155 0.18144387 0.532445073 
0.648599684 0.193949148 0.52334857 
0.65139401 0.185977653 0.531968892 
0.637103498 0.176426306 0.541234076 
0.642663479 0.177472636 0.549113274 
0.635582685 0.186373979 0.539708555 
0.644123018 0.186678424 0.548053563 
0.646792054 0.182724521 0.536063254 
0.646414936 0.18115598 0.549635768 
0.646109581 0.192704037 0.53648901 
0.654559851 0.193670422 0.547579169 
0.642814815 0.180349439 0.5552091 
0.642946005 0.175514564 0.56702435 
0.644270837 0.192073494 0.563657463 
0.64146775 0.18686974 0.565513611 
0.6547755 0.178222135 0.560421526 
0.645952404 0.184691712 0.565978646 
0.64673239 0.191995382 0.558437288 
0.651481628 0.189785689 0.570858777 
0.641092479 0.183452114 0.584454954 
0.642463326 0.17507121 0.593942463 
0.635861158 0.186723396 0.576721549 
0.64496237 0.188329518 0.585384309 
0.650006056 0.180106625 0.575447321 
0.649683774 0.183373392 0.593289375 
0.64561075 0.19367519 0.578542769 
0.65122813 0.188837275 0.588725269 
0.643760681 0.184557512 0.596960485 
0.643967092 0.182383925 0.614935577 
0.635974288 0.186095998 0.604106843 
0.641688704 0.190944001 0.605039775 
0.646502972 0.183111861 0.596544802 
0.65027827 0.182399705 0.606570899 
0.652018487 0.185465023 0.596859992 
0.650023222 0.188012466 0.609353542 
0.639990807 0.179407835 0.621106744 
0.648341119 0.176284656 0.618396699 
0.645788193 0.188140661 0.615595877 
0.653168499 0.207232177 0.494391739 
0.644928396 0.198348969 0.504440546 
0.643024445 0.195936576 0.505984545 
0.636657655 0.207735747 0.499060661 
0.638744295 0.209363222 0.507797897 
0.645246148 0.198830724 0.502950013 
0.653854311 0.196936831 0.507999122 
0.647486806 0.208332255 0.495075881 
0.649174869 0.209653899 0.511968434 
0.639824092 0.195735767 0.517873645 
0.640942574 0.197414249 0.531551242 
0.644042909 0.209478319 0.519071817 
0.637835741 0.207040086 0.52937746 
0.646760166 0.199339598 0.515629113 
0.651088357 0.195899084 0.534711063 
0.651954114 0.208623871 0.516739786 
0.650353014 0.207542405 0.528580189 
0.639487743 0.196304724 0.539508402 
0.637390852 0.200676695 0.554436028 
0.6370368 0.208985373 0.542171657 
0.644435942 0.205470845 0.545964122 
0.6473279 0.201225102 0.543393254 
0.651340842 0.195542872 0.553399503 
0.654015243 0.214844093 0.542948723 
0.654974103 0.206791446 0.550590336 
0.637387514 0.198457658 0.560114384 
0.640462756 0.197781444 0.567817748 
0.64286381 0.213545814 0.555969059 
0.638067305 0.211182013 0.566058159 
0.654332519 0.199712858 0.563727498 
0.649669766 0.204093516 0.57000339 
0.645810246 0.214650333 0.563927174 
0.647916555 0.212581009 0.571971655 
0.637724042 0.203466043 0.576584339 
0.635415673 0.195769563 0.587836325 
0.640028775 0.211049423 0.581755161 
0.636407137 0.209993273 0.58540982 
0.645228207 0.197968453 0.577942967 
0.647120416 0.202801988 0.593825638 
0.654292285 0.20676358 0.582284391 
0.648511589 0.206040442 0.593229651 
0.643093467 0.199597627 0.600451469 
0.640864491 0.195926681 0.610446513 
0.639273226 0.211641803 0.596406102 
0.642475009 0.206539959 0.607338727 
0.648204029 0.197085202 0.603937387 
0.647886217 0.201358572 0.614070654 
0.647852242 0.20511061 0.597982526 
0.652124345 0.208501324 0.60791409 
0.63715595 0.204079762 0.619482815 
0.636857867 0.214263037 0.619005203 
0.645358741 0.198936448 0.615732551 
0.652355015 0.208017185 0.621025026 
0.641334891 0.21824795 0.503801525 
0.63849777 0.224872798 0.508336961 
0.643532932 0.233964428 0.501591206 
0.63635987 0.234064773 0.507386029 
0.646026969 0.218776211 0.504575133 
0.652846873 0.218997076 0.511813521 
0.646332324 0.228897765 0.500190616 
0.654672742 0.229843244 0.511181116 
0.637394845 0.221787155 0.518255413 
0.642122328 0.216757327 0.528843641 
0.643530548 0.23106575 0.516311288 
0.638632178 0.227090716 0.531100214 
0.653622508 0.217374891 0.519180894 
0.648576975 0.21974574 0.530086696 
0.649700165 0.226828277 0.524406016 
0.649227858 0.226338267 0.530869126 
0.637318015 0.215372413 0.535077333 
0.639670789 0.224926203 0.54554677 
0.635102034 0.233155474 0.541005194 
0.642694652 0.226563945 0.552725077 
0.654360414 0.217546865 0.543633997 
0.648133516 0.223481908 0.545291483 
0.647791684 0.228243053 0.54028517 
0.651420057 0.228195578 0.54679513 
0.637695014 0.21851413 0.561177194 
0.640351474 0.220528319 0.574607849 
0.640601695 0.229904786 0.561101556 
0.640080094 0.227773741 0.571663976 
0.653622508 0.223799646 0.560292363 
0.651786506 0.218420133 0.573517323 
0.651289403 0.230706349 0.555097401 
0.652745008 0.229920715 0.566801906 
0.640159249 0.215024248 0.577735007 
0.637788773 0.223446146 0.587317348 
0.63631171 0.227636054 0.580566227 
0.636981249 0.23136875 0.587581396 
0.650466144 0.220726237 0.57880491 
0.648186326 0.222604677 0.591684163 
0.647130728 0.227353141 0.576046109 
0.650728166 0.232769147 0.593261957 
0.640865922 0.21720612 0.600346863 
0.639072359 0.218207359 0.611367166 
0.643462777 0.231201172 0.597220302 
0.643615484 0.228600189 0.605357647 
0.653029919 0.223728657 0.597028852 
0.652015567 0.217346653 0.613767505 
0.648703933 0.226160139 0.597590923 
0.64692384 0.229551926 0.611615777 
0.642503679 0.226290017 0.619746208 
0.653059483 0.221286744 0.621976554 
0.652210236 0.226947099 0.620487392 
0.637159705 0.239044458 0.494499207 
0.638546467 0.242316693 0.500212014 
0.638857722 0.240755752 0.509212494 
0.641084015 0.247130558 0.495587051 
0.635314822 0.246582001 0.512564778 
0.64717555 0.237201005 0.499819607 
0.649378657 0.236136958 0.509522855 
0.650082648 0.245384529 0.497228861 
0.652962983 0.252773315 0.512248635 
0.644422233 0.238368213 0.522674561 
0.637218058 0.238433346 0.529054165 
0.637219191 0.249362513 0.517394185 
0.638036907 0.248525918 0.529639125 
0.64595741 0.24305959 0.516452968 
0.649649501 0.241923556 0.534201622 
0.654799283 0.250251412 0.521036565 
0.650070906 0.254938334 0.5276196 
0.640416384 0.235692456 0.543527544 
0.64119029 0.243069828 0.553303063 
0.644153416 0.247350276 0.540069282 
0.636615098 0.253950715 0.554724514 
0.648530602 0.235593811 0.543409586 
0.646770597 0.241845652 0.550275683 
0.654151797 0.246996909 0.541159272 
0.652153075 0.252709687 0.551842749 
0.640743673 0.242384553 0.560645044 
0.642286003 0.242686495 0.574089229 
0.644283056 0.246541694 0.556512177 
0.640229225 0.245156154 0.569020689 
0.651047707 0.237983897 0.564219117 
0.645228148 0.238519073 0.57382822 
0.648429632 0.245759144 0.55945617 
0.653828859 0.25272727 0.570037961 
0.641595304 0.238189206 0.578896105 
0.643473148 0.244729772 0.585653782 
0.636959314 0.250987023 0.583240092 
0.641971529 0.254817069 0.589819491 
0.650766671 0.243205667 0.580611587 
0.654273987 0.241897136 0.588844776 
0.648837566 0.254163116 0.581515491 
0.649728358 0.250729382 0.585131943 
0.644061685 0.244319573 0.598966718 
0.641147733 0.24001053 0.605632365 
0.64374423 0.249668956 0.597325861 
0.639118969 0.254929811 0.607958794 
0.64747107 0.24146989 0.597119212 
0.650532782 0.235614464 0.612765729 
0.64740926 0.247387931 0.601124644 
0.64898932 0.250100195 0.610240519 
0.637357056 0.236273512 0.621596992 
0.641944408 0.246521577 0.618092597 
0.654604495 0.242381424 0.619956136 
0.652851462 0.2546193 0.621593118 
0.642983258 0.26977703 0.494676679 
0.654035032 0.255369633 0.489826322 
0.648509026 0.270020634 0.492149949 
0.643113792 0.264870912 0.497240067 
0.643894792 0.260393709 0.506969929 
0.642316163 0.273008049 0.504544616 
0.64236486 0.272593528 0.506790102 
0.654650331 0.263691217 0.50314188 
0.646925032 0.263741702 0.506909788 
0.65479809 0.269558191 0.496647418 
0.652756155 0.266405761 0.506336272 
0.640253246 0.260227859 0.517451942 
0.640331686 0.257625222 0.53340894 
0.636503458 0.270787746 0.516662419 
0.643244207 0.272245824 0.531328142 
0.653044045 0.25905779 0.516321301 
0.646908879 0.264290988 0.534225583 
0.651932895 0.268488556 0.522430658 
0.648323953 0.274646252 0.529634774 
0.638802946 0.259181052 0.54189688 
0.636270821 0.256599754 0.554274499 
0.635638475 0.266167819 0.544295311 
0.636859 0.2747989 0.547427118 
0.645369112 0.262307733 0.538198769 
0.652613044 0.257437319 0.545161128 
0.650287926 0.265052617 0.541103303 
0.653965712 0.274837047 0.549890935 
0.644630313 0.259729922 0.558530033 
0.635826468 0.259109974 0.574017823 
0.642449856 0.266649187 0.559744537 
0.640052974 0.273210794 0.574792802 
0.652088523 0.262904733 0.561889946 
0.649543762 0.260968 0.570347488 
0.652141988 0.265280753 0.556505024 
0.651970744 0.265435845 0.567607105 
0.642460704 0.263413221 0.581587434 
0.638418436 0.257368505 0.593502104 
0.638047338 0.267220736 0.58144629 
0.641204774 0.267412066 0.588434458 
0.647628665 0.26381883 0.582809508 
0.654717028 0.257320911 0.589364886 
0.652430356 0.274175048 0.578089654 
0.647183299 0.273040146 0.594704568 
0.636768997 0.264752895 0.59831965 
0.641044319 0.256866068 0.611667991 
0.635706246 0.269607633 0.602274776 
0.635839999 0.272698194 0.611589491 
0.64812851 0.263837665 0.602266371 
0.652325094 0.261210024 0.606287539 
0.647223413 0.269625515 0.598206818 
0.647087157 0.273697138 0.606782913 
0.636308789 0.257926702 0.622988522 
0.636231244 0.269595891 0.617309511 
0.646541297 0.257499099 0.617888033 
0.64650321 0.265839696 0.622426569 
0.637165666 0.276024759 0.492162764 
0.641371012 0.291502625 0.485130221 
0.653920054 0.277041674 0.492422998 
0.651017189 0.292853743 0.480682105 
0.647165 0.288488358 0.493199408 
0.642495632 0.276997298 0.502313972 
0.639396489 0.280399352 0.512638211 
0.635728598 0.290200174 0.497022271 
0.639208674 0.292955875 0.513036907 
0.653054655 0.281660348 0.503764451 
0.652218938 0.281949311 0.508446872 
0.648771346 0.286461025 0.504957616 
0.654389977 0.285970181 0.50640136 
0.635764599 0.275421292 0.517941296 
0.64153558 0.284356773 0.530283272 
0.638348103 0.291641414 0.519298673 
0.642355144 0.292790115 0.534480631 
0.648938775 0.277040243 0.523285151 
0.648012996 0.275770903 0.532358587 
0.649772584 0.293670088 0.523810983 
0.650961041 0.285873771 0.528692365 
0.636012614 0.278734952 0.544997633 
0.640644133 0.282317013 0.550090373 
0.640435934 0.289442956 0.537733197 
0.642656744 0.28643468 0.548578203 
0.654251814 0.284897685 0.537798762 
0.651159883 0.281768739 0.547418356 
0.646781564 0.286800534 0.538495481 
0.651596844 0.293612301 0.548383236 
0.644947886 0.278838873 0.561692178 
0.642735422 0.282119393 0.573708713 
0.635036767 0.28803435 0.560443163 
0.642726302 0.292308629 0.572667539 
0.654955208 0.27637285 0.562590659 
0.646085858 0.276076972 0.573198557 
0.652039647 0.287663251 0.563556015 
0.651300073 0.289594144 0.572497785 
0.639194965 0.275853246 0.579747379 
0.644645393 0.28111884 0.58991015 
0.641064882 0.293984115 0.58170557 
0.643546462 0.294939131 0.590890646 
0.648368895 0.283628911 0.575588524 
0.654918373 0.276761651 0.592052698 
0.64884156 0.288123071 0.577557921 
0.652527928 0.292105317 0.589655876 
0.641529679 0.277787566 0.597350717 
0.637965143 0.275487959 0.614341855 
0.64117825 0.289502501 0.597893953 
0.640709877 0.292657822 0.608465075 
0.6468063 0.276401877 0.597699821 
0.651880145 0.284610689 0.607395291 
0.649410665 0.289461046 0.59678632 
0.651460588 0.285542339 0.60658884 
0.644965887 0.277795523 0.62027961 
0.644564092 0.292106509 0.619955778 
0.649662256 0.283281088 0.617337942 
0.650509536 0.294285744 0.615271509 
0.637879074 0.303685069 0.482017905 
0.636779606 0.295056522 0.489425093 
0.640022635 0.310004115 0.482488483 
0.638352871 0.311014056 0.488746911 
0.647535503 0.295461506 0.475016445 
0.653196514 0.300958127 0.494337469 
0.653142929 0.314045161 0.480217576 
0.653374374 0.308169276 0.492085308 
0.636489809 0.297181696 0.504277825 
0.638197899 0.300087065 0.511460841 
0.640573263 0.305653423 0.498815238 
0.636730075 0.312435985 0.508095086 
0.652768552 0.297237873 0.497131914 
0.649469793 0.299175024 0.509357095 
0.64781487 0.314562857 0.500372946 
0.646286726 0.31300801 0.509142399 
0.637295604 0.295330495 0.516215205 
0.639461756 0.299646318 0.52797401 
0.641558051 0.30948624 0.524535537 
0.642271817 0.306238323 0.528213263 
0.649881721 0.295586139 0.524249017 
0.652399123 0.304357976 0.527812302 
0.651438832 0.306376129 0.521627665 
0.648712218 0.308574021 0.530822933 
0.644579649 0.298636407 0.541164935 
0.64163053 0.29530549 0.550153553 
0.641960979 0.306261718 0.53916651 
0.63512665 0.314015329 0.547947407 
0.654683292 0.300776124 0.536155343 
0.646552563 0.295024514 0.546022356 
0.651493967 0.309420139 0.537087202 
0.645994544 0.306753665 0.553407073 
0.636873782 0.301868975 0.558440268 
0.637500286 0.302392423 0.57054919 
0.635570884 0.311487287 0.563391089 
0.641826689 0.30604589 0.565619528 
0.651257217 0.2951442 0.564666808 
0.653254867 0.300976276 0.572761357 
0.647308588 0.311714768 0.561570942 
0.651195168 0.305956841 0.568469167 
0.635808408 0.299427569 0.578764915 
0.635793328 0.30430609 0.592528999 
0.637479901 0.305370897 0.58330816 
0.641491055 0.305506259 0.586752057 
0.648411572 0.298061013 0.578606546 
0.649358511 0.304063469 0.586517692 
0.64712137 0.308468461 0.575995326 
0.648636758 0.308587104 0.586106002 
0.635803163 0.296504885 0.603972793 
0.636843503 0.295419455 0.613994896 
0.639975667 0.311969668 0.603720129 
0.638485134 0.311863452 0.607544899 
0.651969016 0.299994946 0.603306949 
0.652256608 0.300627083 0.609262764 
0.654366195 0.311170071 0.601546943 
0.647435784 0.309659332 0.610389829 
0.644087493 0.30111748 0.621655405 
0.635442376 0.311319411 0.61886853 
0.654565275 0.298280537 0.619653106 
0.645529628 0.313972771 0.621548831 
0.662872016 0.155627221 0.482453614 
0.659502685 0.162999347 0.485416532 
0.65931648 0.168444127 0.485013813 
0.669502735 0.158322886 0.484757483 
0.668144643 0.158533275 0.486307859 
0.673985362 0.168605387 0.478909522 
0.668339074 0.174462005 0.491342664 
0.661840081 0.155726403 0.497555286 
0.656059504 0.157162666 0.513684034 
0.663655519 0.173830554 0.498325497 
0.660956383 0.167384237 0.511876822 
0.668115854 0.164167598 0.496411979 
0.671359479 0.157516807 0.506258428 
0.669385672 0.165383622 0.501247823 
0.674303889 0.167034656 0.511113405 
0.660574913 0.159188718 0.516695678 
0.655018747 0.161691234 0.530127883 
0.655045807 0.174899161 0.51646471 
0.655612826 0.169641539 0.525183499 
0.669076383 0.162814409 0.516091466 
0.670983374 0.162969708 0.532534897 
0.673907816 0.170510545 0.517181337 
0.673780859 0.169970274 0.534903288 
0.661693871 0.155125186 0.537569642 
0.659763873 0.156290337 0.551530123 
0.655120194 0.167374849 0.535762906 
0.656705856 0.165598124 0.554398417 
0.666856766 0.163745001 0.535396218 
0.673024178 0.16313009 0.552119195 
0.666758537 0.166215405 0.542479694 
0.666198969 0.170930445 0.54589206 
0.661631405 0.163585469 0.560595334 
0.660306156 0.16412358 0.56730032 
0.662957072 0.168896317 0.555571914 
0.659052491 0.167760506 0.572473168 
0.666844785 0.156130478 0.563197017 
0.668386579 0.161684662 0.566730261 
0.668353081 0.165962115 0.562982798 
0.668823004 0.172119781 0.572721779 
0.655283511 0.16191335 0.580848157 
0.659519434 0.163797706 0.589903355 
0.659311473 0.174202099 0.579313278 
0.661618769 0.174230024 0.586675346 
0.67305994 0.157135695 0.583658099 
0.670403123 0.162061214 0.587598205 
0.67335391 0.167965755 0.575873852 
0.667068303 0.172649309 0.594914317 
0.661873817 0.15639703 0.595538557 
0.659849763 0.159176588 0.610811651 
0.664057612 0.165508032 0.601485074 
0.658085883 0.167753741 0.611592591 
0.667336643 0.155598044 0.597483873 
0.671072006 0.161185667 0.605856657 
0.670611262 0.171438679 0.599050462 
0.667407751 0.174753502 0.610689938 
0.65856421 0.157837585 0.621065199 
0.659979165 0.171357021 0.620631754 
0.670651853 0.159904465 0.615427732 
0.673906028 0.167997792 0.623087823 
0.657260776 0.186519384 0.488944292 
0.668449342 0.177700505 0.480038762 
0.673022509 0.181500375 0.490658373 
0.669276655 0.187847197 0.484347343 
0.669658184 0.193193197 0.487305433 
0.656616211 0.179005712 0.497838289 
0.661336303 0.175244197 0.512960851 
0.661037147 0.191570148 0.503936648 
0.660784662 0.191454411 0.507346511 
0.67201978 0.183955789 0.497708023 
0.670932889 0.176981583 0.505372941 
0.666964889 0.191174492 0.503418803 
0.671692789 0.189283609 0.514619768 
0.658816338 0.18259415 0.518688381 
0.655100822 0.182698265 0.530566931 
0.657841563 0.190427333 0.52333951 
0.656800568 0.191913426 0.531967223 
0.66860038 0.180541664 0.516508639 
0.674858034 0.176354483 0.525092781 
0.672067344 0.188014314 0.518938124 
0.665738702 0.190529004 0.531672299 
0.661523759 0.180099323 0.537834644 
0.661734641 0.183215499 0.548841894 
0.656032026 0.188105792 0.535665691 
0.66169709 0.190665677 0.55201602 
0.671799958 0.180732012 0.538538218 
0.674499631 0.178036198 0.554075003 
0.669991791 0.192146122 0.54306972 
0.671482503 0.188065663 0.551300645 
0.660830021 0.175088286 0.560414672 
0.662833393 0.177393109 0.56864512 
0.658221185 0.194833726 0.561876357 
0.658437192 0.189596221 0.565124869 
0.669451535 0.175978214 0.558386326 
0.667278588 0.177285165 0.571154833 
0.672949016 0.187304676 0.56180203 
0.669622898 0.186312884 0.56999886 
0.660196841 0.18425262 0.584436178 
0.663645744 0.1764047 0.590337336 
0.657756329 0.191108957 0.584214807 
0.657889187 0.193935245 0.58868432 
0.666779876 0.182871938 0.58069694 
0.668835878 0.182612076 0.588038325 
0.674942613 0.192262292 0.580027938 
0.670042336 0.193693757 0.593523502 
0.655080974 0.182802007 0.5975582 
0.664296329 0.178993061 0.612687349 
0.663036883 0.193368599 0.598671854 
0.658736289 0.190638915 0.611064017 
0.665949583 0.180227235 0.599758208 
0.670663059 0.184326574 0.612575293 
0.666791439 0.190275684 0.602490008 
0.669310212 0.189207926 0.609370172 
0.664482236 0.194299236 0.623300254 
0.67372191 0.177896559 0.622824252 
0.666121006 0.185570821 0.618777275 
0.656941891 0.210746646 0.493370235 
0.673985302 0.195659384 0.483889937 
0.671650529 0.214354336 0.490155429 
0.655483663 0.202802464 0.499517322 
0.664284229 0.197313517 0.508884966 
0.660654604 0.213328555 0.503048241 
0.661098659 0.207600743 0.514708519 
0.671290219 0.195332423 0.498667151 
0.666575968 0.203914836 0.506024599 
0.671192765 0.212017789 0.504589319 
0.667806208 0.206632495 0.512206793 
0.658092439 0.195906535 0.520278573 
0.658087969 0.204899937 0.52798748 
0.664917648 0.214373618 0.521650016 
0.660447598 0.207415119 0.530224562 
0.669277132 0.203774795 0.524012506 
0.667430341 0.19679749 0.528768301 
0.665171504 0.212114885 0.521268427 
0.674099624 0.209064454 0.530602038 
0.655576646 0.197724029 0.539576113 
0.664080381 0.201145083 0.553264976 
0.658282995 0.212648243 0.542726636 
0.657726467 0.211059004 0.54733628 
0.669579804 0.195638508 0.535381198 
0.668597817 0.198097095 0.554317474 
0.670347869 0.211455598 0.539630651 
0.673668742 0.213099971 0.5455302 
0.661114573 0.199568495 0.562868237 
0.658292592 0.204575419 0.570593655 
0.657351494 0.213157892 0.561211705 
0.658331156 0.209627569 0.565431714 
0.667914689 0.201169461 0.559648693 
0.668581009 0.199833617 0.570119143 
0.669400871 0.208302647 0.563942552 
0.671327531 0.213484794 0.567142427 
0.662462354 0.199719384 0.583707273 
0.656908512 0.201623976 0.591514468 
0.661287367 0.205623075 0.581089377 
0.657441914 0.214594528 0.590479434 
0.671867847 0.198866114 0.581989765 
0.667510033 0.201487929 0.5910061 
0.668102443 0.211698398 0.575423837 
0.672664583 0.214669228 0.592597485 
0.658229291 0.197229758 0.600295365 
0.663387597 0.195454404 0.614886761 
0.65953058 0.208691761 0.604952514 
0.664354026 0.214088336 0.610420048 
0.672175705 0.196030036 0.602471888 
0.669040799 0.198590636 0.605414748 
0.668883085 0.207421541 0.599478543 
0.674907506 0.20762004 0.605888486 
0.657959521 0.197363406 0.616550088 
0.661977887 0.214543015 0.618177772 
0.670579612 0.196813032 0.615691543 
0.670167387 0.20908992 0.618622899 
0.662375569 0.216883525 0.49151507 
0.659409106 0.225943565 0.493718863 
0.667434275 0.224961966 0.48756811 
0.669019818 0.225544974 0.485711932 
0.664237678 0.219096586 0.500604749 
0.664269686 0.223128602 0.509720743 
0.659772396 0.232139945 0.502496362 
0.659908116 0.232848644 0.506107628 
0.673492551 0.223943308 0.500354648 
0.665610313 0.219023928 0.511428356 
0.670823693 0.228308305 0.497075975 
0.670110285 0.226758108 0.506397903 
0.662030458 0.221173942 0.522639573 
